2.836149627317584576e-01 -3.695132977139272690e-01 -7.269999980926513672e-01
2.851028296544491081e-01 -3.690050328702598192e-01 -7.260000109672546387e-01
2.930177901466015644e-01 -3.695132977139272690e-01 -7.269999980926513672e-01
2.948983556295701747e-01 -3.695132977139272690e-01 -7.269999980926513672e-01
2.963707022666236535e-01 -3.690050328702598192e-01 -7.260000109672546387e-01
2.986594865955073952e-01 -3.695132977139272690e-01 -7.269999980926513672e-01
3.005400520784760054e-01 -3.695132977139272690e-01 -7.269999980926513672e-01
3.032525755389119948e-01 -3.705298274012622239e-01 -7.289999723434448242e-01
3.572890329030106171e-01 -3.603644093465707132e-01 -7.089999914169311523e-01
3.586165229240554364e-01 -3.598561445029032635e-01 -7.080000042915344238e-01
3.651393230714268801e-01 -3.608726741902382185e-01 -7.099999785423278809e-01
3.674928054481071404e-01 -3.613809693292411862e-01 -7.110000252723693848e-01
3.693319830401635140e-01 -3.613809693292411862e-01 -7.110000252723693848e-01
3.711711606322198875e-01 -3.613809693292411862e-01 -7.110000252723693848e-01
3.748495158163326346e-01 -3.613809693292411862e-01 -7.110000252723693848e-01
3.766886934083890082e-01 -3.613809693292411862e-01 -7.110000252723693848e-01
3.785278710004453817e-01 -3.613809693292411862e-01 -7.110000252723693848e-01
3.803670485925017553e-01 -3.613809693292411862e-01 -7.110000252723693848e-01
3.811310850242810022e-01 -3.603644093465707132e-01 -7.089999914169311523e-01
3.824249477597786440e-01 -3.598561445029032635e-01 -7.080000042915344238e-01
3.837136370667305063e-01 -3.593478796592358138e-01 -7.070000171661376953e-01
3.855424676475133205e-01 -3.593478796592358138e-01 -7.070000171661376953e-01
3.873712982282960793e-01 -3.593478796592358138e-01 -7.070000171661376953e-01
3.886496078660846010e-01 -3.588395845202327905e-01 -7.059999704360961914e-01
3.893697018880220018e-01 -3.578230548328978911e-01 -7.039999961853027344e-01
3.906351106123360228e-01 -3.573147899892303858e-01 -7.030000090599060059e-01
3.918953459081043200e-01 -3.568065251455629361e-01 -7.020000219345092773e-01
3.937112427633406297e-01 -3.568065251455629361e-01 -7.020000219345092773e-01
3.944002626310209592e-01 -3.557899651628924631e-01 -6.999999880790710449e-01
3.950789690704104573e-01 -3.547734354755575081e-01 -6.980000138282775879e-01
3.941840618500058180e-01 -3.491824313092087850e-01 -6.869999766349792480e-01
3.907738912037752588e-01 -3.446079871255305349e-01 -6.779999732971191406e-01
4.092015324705038926e-01 -3.395252780981847796e-01 -6.679999828338623047e-01
4.220816121634837770e-01 -3.415583677681902075e-01 -6.719999909400939941e-01
4.244505827846400958e-01 -3.420666326118576572e-01 -6.729999780654907227e-01
4.261914638466883232e-01 -3.420666326118576572e-01 -6.729999780654907227e-01
4.292040822126733657e-01 -3.430831925945281302e-01 -6.750000119209289551e-01
4.309501368574494840e-01 -3.430831925945281302e-01 -6.750000119209289551e-01
4.333372146326979757e-01 -3.435914574381955799e-01 -6.759999990463256836e-01
4.357294658364921358e-01 -3.440997222818630852e-01 -6.769999861717224121e-01
4.381268904688320198e-01 -3.446079871255305349e-01 -6.779999732971191406e-01
4.405295272007120899e-01 -3.451162822645335027e-01 -6.790000200271606445e-01
4.422859288567617675e-01 -3.451162822645335027e-01 -6.790000200271606445e-01
4.440423305128115006e-01 -3.451162822645335027e-01 -6.790000200271606445e-01
4.457987321688612337e-01 -3.451162822645335027e-01 -6.790000200271606445e-01
4.475551338249109667e-01 -3.451162822645335027e-01 -6.790000200271606445e-01
4.493115354809606998e-01 -3.451162822645335027e-01 -6.790000200271606445e-01
4.510679371370103774e-01 -3.451162822645335027e-01 -6.790000200271606445e-01
4.521574087695895972e-01 -3.446079871255305349e-01 -6.779999732971191406e-01
4.532417465697105019e-01 -3.440997222818630852e-01 -6.769999861717224121e-01
4.543209109412856828e-01 -3.435914574381955799e-01 -6.759999990463256836e-01
4.560695523003346907e-01 -3.435914574381955799e-01 -6.759999990463256836e-01
4.578181936593836432e-01 -3.435914574381955799e-01 -6.759999990463256836e-01
4.595668350184326512e-01 -3.435914574381955799e-01 -6.759999990463256836e-01
4.599506552598054965e-01 -3.425749277508606250e-01 -6.740000247955322266e-01
4.610090850876529811e-01 -3.420666326118576572e-01 -6.729999780654907227e-01
4.627499661497012085e-01 -3.420666326118576572e-01 -6.729999780654907227e-01
4.631105058084361570e-01 -3.410501029245227023e-01 -6.710000038146972656e-01
4.634606986100796577e-01 -3.400335732371877473e-01 -6.690000295639038086e-01
4.644958472385606330e-01 -3.395252780981847796e-01 -6.679999828338623047e-01
4.651496299219340380e-01 -3.374921884281794071e-01 -6.639999747276306152e-01
4.654610217011203033e-01 -3.364756587408444521e-01 -6.620000004768371582e-01
4.664677576105089596e-01 -3.359673938971769469e-01 -6.610000133514404297e-01
4.660527224710342975e-01 -3.344425690708390242e-01 -6.579999923706054688e-01
4.663330735247641079e-01 -3.334260393835041247e-01 -6.560000181198120117e-01
5.146063199971120383e-01 -3.395252780981847796e-01 -6.679999828338623047e-01
5.178802045221286843e-01 -3.405418380808552525e-01 -6.700000166893005371e-01
5.196133254413582980e-01 -3.405418380808552525e-01 -6.700000166893005371e-01
5.232460566796208745e-01 -3.395252780981847796e-01 -6.679999828338623047e-01
5.234022457566178677e-01 -3.385087484108498246e-01 -6.660000085830688477e-01
5.243365538205486676e-01 -3.380004835671823749e-01 -6.650000214576721191e-01
5.244745887466218948e-01 -3.369839235845119019e-01 -6.629999876022338867e-01
5.246023238124352117e-01 -3.359673938971769469e-01 -6.610000133514404297e-01
5.239234385749351741e-01 -3.344425690708390242e-01 -6.579999923706054688e-01
5.240278930581107053e-01 -3.334260393835041247e-01 -6.560000181198120117e-01
5.233205535010626575e-01 -3.319012145571662020e-01 -6.529999971389770508e-01
-2.465861423221264448e-01 -3.473835354785235752e-01 -6.800000071525573730e-01
-2.451871892449276336e-01 -3.478943870364639146e-01 -6.809999942779541016e-01
-2.434256141603321766e-01 -3.478943870364639146e-01 -6.809999942779541016e-01
-2.420189009403147795e-01 -3.484052385944042540e-01 -6.819999814033508301e-01
-2.402547391414464883e-01 -3.484052385944042540e-01 -6.819999814033508301e-01
-2.384905773425781972e-01 -3.484052385944042540e-01 -6.819999814033508301e-01
-3.335382108395773537e-02 -3.621984133558992514e-01 -7.089999914169311523e-01
-3.151981707462924581e-02 -3.621984133558992514e-01 -7.089999914169311523e-01
-2.964394362773855110e-02 -3.616875617979589119e-01 -7.080000042915344238e-01
-2.777324360939357334e-02 -3.611767102400185725e-01 -7.070000171661376953e-01
-2.594441302861079726e-02 -3.611767102400185725e-01 -7.070000171661376953e-01
-2.411558244782802465e-02 -3.611767102400185725e-01 -7.070000171661376953e-01
-2.231827444751602330e-02 -3.616875617979589119e-01 -7.080000042915344238e-01
-7.450356179476675701e-03 -3.514704088410815497e-01 -6.880000233650207520e-01
-5.662431143314971757e-03 -3.509595268336235807e-01 -6.869999766349792480e-01
-3.879680181158022111e-03 -3.504486752756832413e-01 -6.859999895095825195e-01
-2.105171371016120903e-03 -3.504486752756832413e-01 -6.859999895095825195e-01
-3.306625608742201823e-04 -3.504486752756832413e-01 -6.859999895095825195e-01
1.443846249267680647e-03 -3.504486752756832413e-01 -6.859999895095825195e-01
3.218355059409581422e-03 -3.504486752756832413e-01 -6.859999895095825195e-01
5.000142003173582879e-03 -3.509595268336235807e-01 -6.869999766349792480e-01
6.767372679693382971e-03 -3.504486752756832413e-01 -6.859999895095825195e-01
8.554333052003100513e-03 -3.509595268336235807e-01 -6.869999766349792480e-01
1.033142857641785976e-02 -3.509595268336235807e-01 -6.869999766349792480e-01
1.210852410083261901e-02 -3.509595268336235807e-01 -6.869999766349792480e-01
2.096344316082859177e-02 -3.504486752756832413e-01 -6.859999895095825195e-01
2.270480669461981058e-02 -3.499378237177429019e-01 -6.850000023841857910e-01
2.444099679986531243e-02 -3.494269721598025624e-01 -6.840000152587890625e-01
2.617201347656510080e-02 -3.489161206018622230e-01 -6.830000281333923340e-01
2.789785428653480254e-02 -3.484052385944042540e-01 -6.819999814033508301e-01
2.966201608540310064e-02 -3.484052385944042540e-01 -6.819999814033508301e-01
3.133402018884145351e-02 -3.473835354785235752e-01 -6.800000071525573730e-01
3.304434299717620704e-02 -3.468726839205832357e-01 -6.790000200271606445e-01
3.480074465322592625e-02 -3.468726839205832357e-01 -6.790000200271606445e-01
3.655714630927565240e-02 -3.468726839205832357e-01 -6.790000200271606445e-01
3.825711889724157933e-02 -3.463618019131252113e-01 -6.779999732971191406e-01
4.001093368483627649e-02 -3.463618019131252113e-01 -6.779999732971191406e-01
4.176474847243096672e-02 -3.463618019131252113e-01 -6.779999732971191406e-01
4.345437741240068541e-02 -3.458509503551848718e-01 -6.769999861717224121e-01
4.520560548572252063e-02 -3.458509503551848718e-01 -6.769999861717224121e-01
4.695683355904435585e-02 -3.458509503551848718e-01 -6.769999861717224121e-01
4.863611564192264064e-02 -3.453400987972445879e-01 -6.759999990463256836e-01
5.031022429625520848e-02 -3.448292472393042485e-01 -6.750000119209289551e-01
5.197915952204205936e-02 -3.443183956813639091e-01 -6.740000247955322266e-01
5.372262745254532262e-02 -3.443183956813639091e-01 -6.740000247955322266e-01
5.538379763041450382e-02 -3.438075136739058846e-01 -6.729999780654907227e-01
5.703979913065489182e-02 -3.432966621159655451e-01 -6.719999909400939941e-01
5.869062720234956287e-02 -3.427858105580252057e-01 -6.710000038146972656e-01
6.543783147001536182e-02 -3.417641074421445824e-01 -6.690000295639038086e-01
6.706795984315289116e-02 -3.412532254346865579e-01 -6.679999828338623047e-01
6.879590717965465563e-02 -3.412532254346865579e-01 -6.679999828338623047e-01
7.052385451615643397e-02 -3.412532254346865579e-01 -6.679999828338623047e-01
7.225180185265819843e-02 -3.412532254346865579e-01 -6.679999828338623047e-01
7.570769652566175512e-02 -3.412532254346865579e-01 -6.679999828338623047e-01
7.755157090471297143e-02 -3.417641074421445824e-01 -6.690000295639038086e-01
7.940061195702477481e-02 -3.422749590000849218e-01 -6.700000166893005371e-01
8.113373287625443020e-02 -3.422749590000849218e-01 -6.700000166893005371e-01
8.299053407138480554e-02 -3.427858105580252057e-01 -6.710000038146972656e-01
8.472624170488732287e-02 -3.427858105580252057e-01 -6.710000038146972656e-01
8.659080304283628404e-02 -3.432966621159655451e-01 -6.719999909400939941e-01
8.846053780933094135e-02 -3.438075136739058846e-01 -6.729999780654907227e-01
9.020141887137918257e-02 -3.438075136739058846e-01 -6.729999780654907227e-01
9.207892192361709360e-02 -3.443183956813639091e-01 -6.740000247955322266e-01
9.382238985412036381e-02 -3.443183956813639091e-01 -6.740000247955322266e-01
9.745369970521046421e-02 -3.448292472393042485e-01 -6.750000119209289551e-01
1.793906439981471090e-01 -3.621984133558992514e-01 -7.089999914169311523e-01
1.814802507112920904e-01 -3.627092649138395353e-01 -7.099999785423278809e-01
1.835750462424694529e-01 -3.632201469212975598e-01 -7.110000252723693848e-01
1.856749999668880213e-01 -3.637309984792378992e-01 -7.120000123977661133e-01
1.877801271198523136e-01 -3.642418500371782386e-01 -7.129999995231628418e-01
1.898904277013623298e-01 -3.647527015951185780e-01 -7.139999866485595703e-01
1.922744539928141760e-01 -3.657744351605168864e-01 -7.160000205039978027e-01
1.946688112893242839e-01 -3.667961382763975653e-01 -7.179999947547912598e-01
1.970735317575055268e-01 -3.678178718417958737e-01 -7.200000286102294922e-01
1.992122865043813029e-01 -3.683287233997362131e-01 -7.210000157356262207e-01
2.016350978120750037e-01 -3.693504265156168920e-01 -7.229999899864196777e-01
2.043497426005314310e-01 -3.708830116389555398e-01 -7.260000109672546387e-01
2.065117779300451040e-01 -3.713938631968958792e-01 -7.269999980926513672e-01
2.089656299631952874e-01 -3.724155663127765581e-01 -7.289999723434448242e-01
2.117190760824732565e-01 -3.739481514361152059e-01 -7.319999933242797852e-01
2.139043919946248262e-01 -3.744590029940555453e-01 -7.329999804496765137e-01
2.160948988833591988e-01 -3.749698850015135698e-01 -7.340000271797180176e-01
2.182905618067843556e-01 -3.754807365594539093e-01 -7.350000143051147461e-01
2.201918213123001955e-01 -3.754807365594539093e-01 -7.350000143051147461e-01
2.265102738073949407e-01 -3.765024396753345326e-01 -7.369999885559082031e-01
2.281067830379099881e-01 -3.759915881173942487e-01 -7.360000014305114746e-01
2.303389710355318309e-01 -3.734372998781748665e-01 -7.310000061988830566e-01
2.325194241309678223e-01 -3.708830116389555398e-01 -7.260000109672546387e-01
2.331059545559794610e-01 -3.688395749576765525e-01 -7.220000028610229492e-01
2.346481423242179898e-01 -3.683287233997362131e-01 -7.210000157356262207e-01
2.358571064080489665e-01 -3.673069898343379047e-01 -7.189999818801879883e-01
2.367251256152822780e-01 -3.657744351605168864e-01 -7.160000205039978027e-01
2.375776046761088334e-01 -3.642418500371782386e-01 -7.129999995231628418e-01
2.443763545921927294e-01 -3.606658282325605480e-01 -7.059999704360961914e-01
2.462025983045204591e-01 -3.606658282325605480e-01 -7.059999704360961914e-01
2.502090046695880643e-01 -3.611767102400185725e-01 -7.070000171661376953e-01
2.520378352503708230e-01 -3.611767102400185725e-01 -7.070000171661376953e-01
2.538666658311535818e-01 -3.611767102400185725e-01 -7.070000171661376953e-01
2.556954964119363405e-01 -3.611767102400185725e-01 -7.070000171661376953e-01
2.578885716959956609e-01 -3.616875617979589119e-01 -7.080000042915344238e-01
2.604536518261500455e-01 -3.627092649138395353e-01 -7.099999785423278809e-01
2.630291008327159119e-01 -3.637309984792378992e-01 -7.120000123977661133e-01
2.656148748312353036e-01 -3.647527015951185780e-01 -7.139999866485595703e-01
2.682110180145305112e-01 -3.657744351605168864e-01 -7.160000205039978027e-01
2.704403076067741774e-01 -3.662852867184572259e-01 -7.170000076293945312e-01
2.734343232414395697e-01 -3.678178718417958737e-01 -7.200000286102294922e-01
2.756791332735025746e-01 -3.683287233997362131e-01 -7.210000157356262207e-01
2.786989935690299958e-01 -3.698612780735572314e-01 -7.239999771118164062e-01
2.813468721170576115e-01 -3.708830116389555398e-01 -7.260000109672546387e-01
2.832248508857533320e-01 -3.708830116389555398e-01 -7.260000109672546387e-01
2.851028296544491081e-01 -3.708830116389555398e-01 -7.260000109672546387e-01
2.869808084231448841e-01 -3.708830116389555398e-01 -7.260000109672546387e-01
2.892566591806642884e-01 -3.713938631968958792e-01 -7.269999980926513672e-01
2.911372246636328986e-01 -3.713938631968958792e-01 -7.269999980926513672e-01
2.934208355639709165e-01 -3.719047147548362187e-01 -7.279999852180480957e-01
2.963707022666236535e-01 -3.708830116389555398e-01 -7.260000109672546387e-01
2.986594865955073952e-01 -3.713938631968958792e-01 -7.269999980926513672e-01
3.009534443529368608e-01 -3.719047147548362187e-01 -7.279999852180480957e-01
3.032525755389119948e-01 -3.724155663127765581e-01 -7.289999723434448242e-01
3.051383144504263289e-01 -3.724155663127765581e-01 -7.289999723434448242e-01
3.581100089357716620e-01 -3.611767102400185725e-01 -7.070000171661376953e-01
3.599388395165544763e-01 -3.611767102400185725e-01 -7.070000171661376953e-01
3.617676700973372350e-01 -3.611767102400185725e-01 -7.070000171661376953e-01
3.646250489403246031e-01 -3.621984133558992514e-01 -7.089999914169311523e-01
3.669759137950282524e-01 -3.627092649138395353e-01 -7.099999785423278809e-01
3.693319830401635140e-01 -3.632201469212975598e-01 -7.110000252723693848e-01
3.706490952422309415e-01 -3.627092649138395353e-01 -7.099999785423278809e-01
3.719610649776385336e-01 -3.621984133558992514e-01 -7.089999914169311523e-01
3.743222766894336306e-01 -3.627092649138395353e-01 -7.099999785423278809e-01
3.761588674130350030e-01 -3.627092649138395353e-01 -7.099999785423278809e-01
3.779954581366363198e-01 -3.627092649138395353e-01 -7.099999785423278809e-01
3.792970810149525196e-01 -3.621984133558992514e-01 -7.089999914169311523e-01
3.800559759051649888e-01 -3.611767102400185725e-01 -7.070000171661376953e-01
3.818848064859477476e-01 -3.611767102400185725e-01 -7.070000171661376953e-01
3.826281487409976534e-01 -3.601549766746202086e-01 -7.049999833106994629e-01
3.844518057390525212e-01 -3.601549766746202086e-01 -7.049999833106994629e-01
3.862754627371073890e-01 -3.601549766746202086e-01 -7.049999833106994629e-01
3.875486316042399682e-01 -3.596441251166798692e-01 -7.039999961853027344e-01
3.888166270428268234e-01 -3.591332735587395852e-01 -7.030000090599060059e-01
3.895237543729636598e-01 -3.581115399933412213e-01 -7.009999752044677734e-01
3.907788160860040660e-01 -3.576006884354008819e-01 -6.999999880790710449e-01
3.920287043704987484e-01 -3.570898368774605425e-01 -6.990000009536743164e-01
3.932734192264477624e-01 -3.565789853195202030e-01 -6.980000138282775879e-01
3.933809100835671257e-01 -3.550464001961815552e-01 -6.949999928474426270e-01
3.901975359301244062e-01 -3.458509503551848718e-01 -6.769999861717224121e-01
3.885689387797300887e-01 -3.310360724778092512e-01 -6.480000019073486328e-01
3.938585216080381923e-01 -3.341012122749689173e-01 -6.539999842643737793e-01
4.079763939235621084e-01 -3.402315223188058790e-01 -6.660000085830688477e-01
4.156260702875786972e-01 -3.422749590000849218e-01 -6.700000166893005371e-01
4.167362750762460544e-01 -3.417641074421445824e-01 -6.690000295639038086e-01
4.212971638260163409e-01 -3.412532254346865579e-01 -6.679999828338623047e-01
4.230251111625180638e-01 -3.412532254346865579e-01 -6.679999828338623047e-01
4.301320607718883138e-01 -3.427858105580252057e-01 -6.710000038146972656e-01
4.325113782501360804e-01 -3.432966621159655451e-01 -6.719999909400939941e-01
4.348958691569295154e-01 -3.438075136739058846e-01 -6.729999780654907227e-01
4.396804100813300753e-01 -3.448292472393042485e-01 -6.750000119209289551e-01
4.414264647261061936e-01 -3.448292472393042485e-01 -6.750000119209289551e-01
4.438290627869918570e-01 -3.453400987972445879e-01 -6.759999990463256836e-01
4.455777041460408094e-01 -3.453400987972445879e-01 -6.759999990463256836e-01
4.473263455050897619e-01 -3.453400987972445879e-01 -6.759999990463256836e-01
4.490749868641387699e-01 -3.453400987972445879e-01 -6.759999990463256836e-01
4.508236282231877223e-01 -3.453400987972445879e-01 -6.759999990463256836e-01
4.525722695822367303e-01 -3.453400987972445879e-01 -6.759999990463256836e-01
4.536488472395390770e-01 -3.448292472393042485e-01 -6.750000119209289551e-01
4.553949018843151952e-01 -3.448292472393042485e-01 -6.750000119209289551e-01
4.564637193987989283e-01 -3.443183956813639091e-01 -6.740000247955322266e-01
4.582071873293022124e-01 -3.443183956813639091e-01 -6.740000247955322266e-01
4.592682040256047538e-01 -3.438075136739058846e-01 -6.729999780654907227e-01
4.603240878145420933e-01 -3.432966621159655451e-01 -6.719999909400939941e-01
4.613747981749336535e-01 -3.427858105580252057e-01 -6.710000038146972656e-01
4.617301644051228782e-01 -3.417641074421445824e-01 -6.690000295639038086e-01
4.627678999020588546e-01 -3.412532254346865579e-01 -6.679999828338623047e-01
4.624098148479535153e-01 -3.397206707608655396e-01 -6.650000214576721191e-01
4.634320295967058745e-01 -3.392097887534075706e-01 -6.639999747276306152e-01
4.647579174280994097e-01 -3.376772340795865524e-01 -6.610000133514404297e-01
4.643506425856254172e-01 -3.361446489562479045e-01 -6.579999923706054688e-01
4.653444447694676245e-01 -3.356337973983075651e-01 -6.570000052452087402e-01
4.680721344655096594e-01 -3.315469240357495906e-01 -6.489999890327453613e-01
4.683033376396908420e-01 -3.305252209198689117e-01 -6.470000147819519043e-01
5.229026843344556363e-01 -3.432966621159655451e-01 -6.719999909400939941e-01
5.257599299885244992e-01 -3.417641074421445824e-01 -6.690000295639038086e-01
5.259134855085991767e-01 -3.407423738767462185e-01 -6.669999957084655762e-01
5.260567410142318323e-01 -3.397206707608655396e-01 -6.650000214576721191e-01
5.261896023575771686e-01 -3.386989371954672312e-01 -6.629999876022338867e-01
5.263121639948448172e-01 -3.376772340795865524e-01 -6.610000133514404297e-01
5.264243311614607013e-01 -3.366555005141882440e-01 -6.589999794960021973e-01
5.257247995149738617e-01 -3.351229458403672257e-01 -6.560000181198120117e-01
-2.479799219707795599e-01 -3.486290855766329688e-01 -6.790000200271606445e-01
-2.458608766930990008e-01 -3.481156167007199431e-01 -6.779999732971191406e-01
-2.441070619055043245e-01 -3.481156167007199431e-01 -6.779999732971191406e-01
-2.427107170026303884e-01 -3.486290855766329688e-01 -6.790000200271606445e-01
-2.413091772111587152e-01 -3.491425238488461424e-01 -6.800000071525573730e-01
-2.395501888408361202e-01 -3.491425238488461424e-01 -6.800000071525573730e-01
-2.374415120344812169e-01 -3.486290855766329688e-01 -6.790000200271606445e-01
-3.325973535174189116e-02 -3.630055408208013312e-01 -7.070000171661376953e-01
-3.134198981746173784e-02 -3.619786336726751319e-01 -7.049999833106994629e-01
-2.947646338184464754e-02 -3.614651954004619028e-01 -7.039999961853027344e-01
-2.761611037477327418e-02 -3.609517571282487292e-01 -7.030000090599060059e-01
-2.579762680526410251e-02 -3.609517571282487292e-01 -7.030000090599060059e-01
-2.397914323575493084e-02 -3.609517571282487292e-01 -7.030000090599060059e-01
-2.216065966624576264e-02 -3.609517571282487292e-01 -7.030000090599060059e-01
-2.034217609673659097e-02 -3.609517571282487292e-01 -7.030000090599060059e-01
-7.417868935153917181e-03 -3.517097458136119181e-01 -6.850000023841857910e-01
-5.645946839284874015e-03 -3.517097458136119181e-01 -6.850000023841857910e-01
-3.874024743415831282e-03 -3.517097458136119181e-01 -6.850000023841857910e-01
-2.102102647546788550e-03 -3.517097458136119181e-01 -6.850000023841857910e-01
-3.301805516777458170e-04 -3.517097458136119181e-01 -6.850000023841857910e-01
1.441741544191296916e-03 -3.517097458136119181e-01 -6.850000023841857910e-01
3.213663640060339648e-03 -3.517097458136119181e-01 -6.850000023841857910e-01
4.985585735929382381e-03 -3.517097458136119181e-01 -6.850000023841857910e-01
6.757507831798425547e-03 -3.517097458136119181e-01 -6.850000023841857910e-01
8.529429927667468714e-03 -3.517097458136119181e-01 -6.850000023841857910e-01
1.207327411940555331e-02 -3.517097458136119181e-01 -6.850000023841857910e-01
2.087176747459511955e-02 -3.506828692691855709e-01 -6.830000281333923340e-01
2.260536888992990823e-02 -3.501694003932725452e-01 -6.819999814033508301e-01
2.436953068879820633e-02 -3.501694003932725452e-01 -6.819999814033508301e-01
2.613369248766650443e-02 -3.501694003932725452e-01 -6.819999814033508301e-01
2.785694886736554687e-02 -3.496559621210593161e-01 -6.809999942779541016e-01
2.957503181851887236e-02 -3.491425238488461424e-01 -6.800000071525573730e-01
3.128794134112648090e-02 -3.486290855766329688e-01 -6.790000200271606445e-01
3.304434299717620704e-02 -3.486290855766329688e-01 -6.790000200271606445e-01
3.474948932205218499e-02 -3.481156167007199431e-01 -6.779999732971191406e-01
3.650330410964688216e-02 -3.481156167007199431e-01 -6.779999732971191406e-01
3.820069319243517281e-02 -3.476021784285067140e-01 -6.769999861717224121e-01
3.995192126575700803e-02 -3.476021784285067140e-01 -6.769999861717224121e-01
4.164155020572672672e-02 -3.470887401562935404e-01 -6.759999990463256836e-01
4.339019156477570693e-02 -3.470887401562935404e-01 -6.759999990463256836e-01
4.513883292382468715e-02 -3.470887401562935404e-01 -6.759999990463256836e-01
4.688747428287366042e-02 -3.470887401562935404e-01 -6.759999990463256836e-01
4.863611564192264064e-02 -3.470887401562935404e-01 -6.759999990463256836e-01
5.023569159153879610e-02 -3.460618636118671376e-01 -6.740000247955322266e-01
5.190203550631803525e-02 -3.455483947359541119e-01 -6.729999780654907227e-01
5.364291656836626954e-02 -3.455483947359541119e-01 -6.729999780654907227e-01
5.530150478287951255e-02 -3.450349564637409383e-01 -6.719999909400939941e-01
5.695491956884704554e-02 -3.445215181915277647e-01 -6.710000038146972656e-01
5.869062720234956287e-02 -3.445215181915277647e-01 -6.710000038146972656e-01
6.033628184549852391e-02 -3.440080799193145356e-01 -6.700000166893005371e-01
6.706795984315289116e-02 -3.429811727711883362e-01 -6.679999828338623047e-01
6.869292061793680348e-02 -3.424677344989751626e-01 -6.669999957084655762e-01
7.041828124016571988e-02 -3.424677344989751626e-01 -6.669999957084655762e-01
7.214364186239463628e-02 -3.424677344989751626e-01 -6.669999957084655762e-01
7.386900248462355267e-02 -3.424677344989751626e-01 -6.669999957084655762e-01
7.570769652566175512e-02 -3.429811727711883362e-01 -6.679999828338623047e-01
7.743564386216351958e-02 -3.429811727711883362e-01 -6.679999828338623047e-01
7.916359119866529792e-02 -3.429811727711883362e-01 -6.679999828338623047e-01
8.089153853516706238e-02 -3.429811727711883362e-01 -6.679999828338623047e-01
8.286685379548409947e-02 -3.440080799193145356e-01 -6.700000166893005371e-01
8.472624170488732287e-02 -3.445215181915277647e-01 -6.710000038146972656e-01
8.646194933838985408e-02 -3.445215181915277647e-01 -6.710000038146972656e-01
8.846053780933094135e-02 -3.455483947359541119e-01 -6.729999780654907227e-01
9.194229993342740992e-02 -3.455483947359541119e-01 -6.729999780654907227e-01
9.368318099547565114e-02 -3.455483947359541119e-01 -6.729999780654907227e-01
9.556585778462362013e-02 -3.460618636118671376e-01 -6.740000247955322266e-01
9.730932571512687645e-02 -3.460618636118671376e-01 -6.740000247955322266e-01
9.905279364563014666e-02 -3.460618636118671376e-01 -6.740000247955322266e-01
1.009458089947627007e-01 -3.465753018840803668e-01 -6.750000119209289551e-01
1.783785649588502664e-01 -3.619786336726751319e-01 -7.049999833106994629e-01
1.825422731806254084e-01 -3.630055408208013312e-01 -7.070000171661376953e-01
1.846318798937703898e-01 -3.635189790930145048e-01 -7.080000042915344238e-01
1.867266600354610673e-01 -3.640324173652277340e-01 -7.089999914169311523e-01
1.890925790186385735e-01 -3.650593245133539333e-01 -7.110000252723693848e-01
1.914688291610565085e-01 -3.660862010577803360e-01 -7.129999995231628418e-01
1.938554261605658635e-01 -3.671130776022066833e-01 -7.149999737739562988e-01
1.965260960354728303e-01 -3.686534230225461117e-01 -7.179999947547912598e-01
1.992122865043813029e-01 -3.701937684428855402e-01 -7.210000157356262207e-01
2.019139809443472044e-01 -3.717340832595251165e-01 -7.239999771118164062e-01
2.043497426005314310e-01 -3.727609904076513159e-01 -7.260000109672546387e-01
2.067958344908630286e-01 -3.737878669520777186e-01 -7.279999852180480957e-01
2.095389335988674107e-01 -3.753282123724170916e-01 -7.310000061988830566e-01
2.120083060718369050e-01 -3.763550889168434943e-01 -7.329999804496765137e-01
2.144880427957527314e-01 -3.773819960649696936e-01 -7.350000143051147461e-01
2.166837057191778881e-01 -3.778954343371829228e-01 -7.360000014305114746e-01
2.188845420711487966e-01 -3.784088726093960964e-01 -7.369999885559082031e-01
2.207909750052103326e-01 -3.784088726093960964e-01 -7.369999885559082031e-01
2.287266304450029930e-01 -3.789223108816092700e-01 -7.379999756813049316e-01
2.293856084220599612e-01 -3.768685577927565200e-01 -7.340000271797180176e-01
2.309691652997162559e-01 -3.763550889168434943e-01 -7.329999804496765137e-01
2.322298835297740560e-01 -3.753282123724170916e-01 -7.310000061988830566e-01
2.325194241309678223e-01 -3.727609904076513159e-01 -7.260000109672546387e-01
2.337516691058010576e-01 -3.717340832595251165e-01 -7.239999771118164062e-01
2.346481423242179898e-01 -3.701937684428855402e-01 -7.210000157356262207e-01
2.361851566639107669e-01 -3.696803301706723111e-01 -7.200000286102294922e-01
2.370557430330116622e-01 -3.681399847503329381e-01 -7.170000076293945312e-01
2.379108088081110517e-01 -3.665996393299935097e-01 -7.139999866485595703e-01
2.410648517656741596e-01 -3.630055408208013312e-01 -7.070000171661376953e-01
2.428936823464569461e-01 -3.630055408208013312e-01 -7.070000171661376953e-01
2.440302168888262013e-01 -3.619786336726751319e-01 -7.049999833106994629e-01
2.458538738868810969e-01 -3.619786336726751319e-01 -7.049999833106994629e-01
2.476775308849359925e-01 -3.619786336726751319e-01 -7.049999833106994629e-01
2.495011878829908603e-01 -3.619786336726751319e-01 -7.049999833106994629e-01
2.513248448810457836e-01 -3.619786336726751319e-01 -7.049999833106994629e-01
2.535075731538314336e-01 -3.624920719448883055e-01 -7.059999704360961914e-01
2.556954964119363405e-01 -3.630055408208013312e-01 -7.070000171661376953e-01
2.575243269927191547e-01 -3.630055408208013312e-01 -7.070000171661376953e-01
2.593531575735019135e-01 -3.630055408208013312e-01 -7.070000171661376953e-01
2.622902425497514178e-01 -3.645458556374409076e-01 -7.099999785423278809e-01
2.644988602929499999e-01 -3.650593245133539333e-01 -7.110000252723693848e-01
2.670872210057423368e-01 -3.660862010577803360e-01 -7.129999995231628418e-01
2.696859285756260105e-01 -3.671130776022066833e-01 -7.149999737739562988e-01
2.722950056386498896e-01 -3.681399847503329381e-01 -7.170000076293945312e-01
2.752967815703160070e-01 -3.696803301706723111e-01 -7.200000286102294922e-01
2.779291167341112478e-01 -3.707072067150987138e-01 -7.220000028610229492e-01
2.805717987549978809e-01 -3.717340832595251165e-01 -7.239999771118164062e-01
2.828347390397482619e-01 -3.722475521354381423e-01 -7.250000238418579102e-01
2.851028296544491081e-01 -3.727609904076513159e-01 -7.260000109672546387e-01
2.869808084231448841e-01 -3.727609904076513159e-01 -7.260000109672546387e-01
2.888587871918406047e-01 -3.727609904076513159e-01 -7.260000109672546387e-01
2.911372246636328986e-01 -3.732744286798644895e-01 -7.269999980926513672e-01
2.948983556295701747e-01 -3.732744286798644895e-01 -7.269999980926513672e-01
2.963707022666236535e-01 -3.727609904076513159e-01 -7.260000109672546387e-01
2.986594865955073952e-01 -3.732744286798644895e-01 -7.269999980926513672e-01
3.009534443529368608e-01 -3.737878669520777186e-01 -7.279999852180480957e-01
3.051383144504263289e-01 -3.743013052242908922e-01 -7.289999723434448242e-01
3.078663832994629201e-01 -3.753282123724170916e-01 -7.310000061988830566e-01
3.584115070637275413e-01 -3.614651954004619028e-01 -7.039999961853027344e-01
3.617676700973372350e-01 -3.630055408208013312e-01 -7.070000171661376953e-01
3.641107748092223262e-01 -3.635189790930145048e-01 -7.080000042915344238e-01
3.664590529496530857e-01 -3.640324173652277340e-01 -7.089999914169311523e-01
3.682930569589815684e-01 -3.640324173652277340e-01 -7.089999914169311523e-01
3.696050266943892160e-01 -3.635189790930145048e-01 -7.080000042915344238e-01
3.709118230012510842e-01 -3.630055408208013312e-01 -7.070000171661376953e-01
3.732678612845004573e-01 -3.635189790930145048e-01 -7.080000042915344238e-01
3.750992785795561058e-01 -3.635189790930145048e-01 -7.080000042915344238e-01
3.769306958746117542e-01 -3.635189790930145048e-01 -7.080000042915344238e-01
3.782271453243821746e-01 -3.630055408208013312e-01 -7.070000171661376953e-01
3.789808347448878623e-01 -3.619786336726751319e-01 -7.049999833106994629e-01
3.797242091952809928e-01 -3.609517571282487292e-01 -7.030000090599060059e-01
3.815426927647901367e-01 -3.609517571282487292e-01 -7.030000090599060059e-01
3.833611763342993362e-01 -3.609517571282487292e-01 -7.030000090599060059e-01
3.851796599038084801e-01 -3.609517571282487292e-01 -7.030000090599060059e-01
3.858971343994010983e-01 -3.599248499801225298e-01 -7.009999752044677734e-01
3.866042946957920501e-01 -3.588979734356961271e-01 -6.990000009536743164e-01
3.884124312540276347e-01 -3.588979734356961271e-01 -6.990000009536743164e-01
3.896623195385223171e-01 -3.583845351634829535e-01 -6.980000138282775879e-01
3.909070343944712755e-01 -3.578710968912697243e-01 -6.970000267028808594e-01
3.915831205366051559e-01 -3.568441897431435250e-01 -6.949999928474426270e-01
3.922488932504482051e-01 -3.558173131987171223e-01 -6.930000185966491699e-01
3.895752156118945653e-01 -3.409273890786357342e-01 -6.639999747276306152e-01
3.870915901114971858e-01 -3.357929451491041273e-01 -6.539999842643737793e-01
3.944607440244176644e-01 -3.363063834213173564e-01 -6.549999713897705078e-01
4.126574271435074492e-01 -3.429811727711883362e-01 -6.679999828338623047e-01
4.137650450637197497e-01 -3.424677344989751626e-01 -6.669999957084655762e-01
4.164287312564372012e-01 -3.404139508064225605e-01 -6.629999876022338867e-01
4.204920214660016198e-01 -3.409273890786357342e-01 -6.639999747276306152e-01
4.228455093932400044e-01 -3.414408579545487599e-01 -6.650000214576721191e-01
4.245656965869231692e-01 -3.414408579545487599e-01 -6.650000214576721191e-01
4.275679300415510808e-01 -3.424677344989751626e-01 -6.669999957084655762e-01
4.299369005085251771e-01 -3.429811727711883362e-01 -6.679999828338623047e-01
4.329572794798753343e-01 -3.440080799193145356e-01 -6.700000166893005371e-01
4.353391836723958797e-01 -3.445215181915277647e-01 -6.710000038146972656e-01
4.383776312810259701e-01 -3.455483947359541119e-01 -6.729999780654907227e-01
4.401185123430741974e-01 -3.455483947359541119e-01 -6.729999780654907227e-01
4.418593934051224248e-01 -3.455483947359541119e-01 -6.729999780654907227e-01
4.436002744671706521e-01 -3.455483947359541119e-01 -6.729999780654907227e-01
4.460029118157793904e-01 -3.460618636118671376e-01 -6.740000247955322266e-01
4.477463797462826189e-01 -3.460618636118671376e-01 -6.740000247955322266e-01
4.494898476767859030e-01 -3.460618636118671376e-01 -6.740000247955322266e-01
4.512333156072891316e-01 -3.460618636118671376e-01 -6.740000247955322266e-01
4.523046797774118444e-01 -3.455483947359541119e-01 -6.729999780654907227e-01
4.540455608394600717e-01 -3.455483947359541119e-01 -6.729999780654907227e-01
4.557864419015082991e-01 -3.455483947359541119e-01 -6.729999780654907227e-01
4.568474991189913070e-01 -3.450349564637409383e-01 -6.719999909400939941e-01
4.579033829079286466e-01 -3.445215181915277647e-01 -6.710000038146972656e-01
4.589540932683202068e-01 -3.440080799193145356e-01 -6.700000166893005371e-01
4.593120052290552979e-01 -3.429811727711883362e-01 -6.679999828338623047e-01
4.606896276542703506e-01 -3.414408579545487599e-01 -6.650000214576721191e-01
4.624098148479535153e-01 -3.414408579545487599e-01 -6.650000214576721191e-01
4.627340987522306492e-01 -3.404139508064225605e-01 -6.629999876022338867e-01
4.633516669732375415e-01 -3.383601671138699585e-01 -6.589999794960021973e-01
4.643506425856254172e-01 -3.378467288416567293e-01 -6.579999923706054688e-01
4.671119598755789637e-01 -3.337391614565515252e-01 -6.499999761581420898e-01
4.683033376396908420e-01 -3.321988466399119488e-01 -6.470000147819519043e-01
5.203888577140192151e-01 -3.445215181915277647e-01 -6.710000038146972656e-01
5.221245653475217186e-01 -3.445215181915277647e-01 -6.710000038146972656e-01
5.238602729810243330e-01 -3.445215181915277647e-01 -6.710000038146972656e-01
5.255959806145268365e-01 -3.445215181915277647e-01 -6.710000038146972656e-01
5.273316882480293399e-01 -3.445215181915277647e-01 -6.710000038146972656e-01
5.274904641934813343e-01 -3.434946416471013619e-01 -6.690000295639038086e-01
5.276388461308281208e-01 -3.424677344989751626e-01 -6.669999957084655762e-01
5.277769282079151081e-01 -3.414408579545487599e-01 -6.650000214576721191e-01
5.280220041772544226e-01 -3.393870742619961578e-01 -6.610000133514404297e-01
5.258136857905875150e-01 -3.357929451491041273e-01 -6.539999842643737793e-01
-2.451356326783057926e-01 -3.488373815153425483e-01 -6.759999990463256836e-01
-2.433869913192568124e-01 -3.488373815153425483e-01 -6.759999990463256836e-01
-2.419957985390587263e-01 -3.493534065018285562e-01 -6.769999861717224121e-01
-2.409543153465806553e-01 -3.503854872326827019e-01 -6.790000200271606445e-01
-2.391979136905309500e-01 -3.503854872326827019e-01 -6.790000200271606445e-01
-3.493967423319073451e-02 -3.632862656842439364e-01 -7.039999961853027344e-01
-3.307156108330078920e-02 -3.627702406977579286e-01 -7.030000090599060059e-01
-3.125307751379161753e-02 -3.627702406977579286e-01 -7.030000090599060059e-01
-2.930898313595074745e-02 -3.612221349804177195e-01 -6.999999880790710449e-01
-2.745897714015297503e-02 -3.607061099939317117e-01 -6.990000009536743164e-01
-2.565084058191740776e-02 -3.607061099939317117e-01 -6.990000009536743164e-01
-2.380859472893821077e-02 -3.601900850074456484e-01 -6.980000138282775879e-01
-2.200304488497549851e-02 -3.601900850074456484e-01 -6.980000138282775879e-01
-2.016855917481487695e-02 -3.596740600209595851e-01 -6.970000267028808594e-01
-7.396211202578103355e-03 -3.524496179365088633e-01 -6.830000281333923340e-01
-5.629462535254776273e-03 -3.524496179365088633e-01 -6.830000281333923340e-01
-3.862713867931450058e-03 -3.524496179365088633e-01 -6.830000281333923340e-01
-2.095965200608123410e-03 -3.524496179365088633e-01 -6.830000281333923340e-01
-3.292165332847970865e-04 -3.524496179365088633e-01 -6.830000281333923340e-01
1.437532134038529454e-03 -3.524496179365088633e-01 -6.830000281333923340e-01
3.204280801361855668e-03 -3.524496179365088633e-01 -6.830000281333923340e-01
4.971029468685182751e-03 -3.524496179365088633e-01 -6.830000281333923340e-01
6.747642983903467256e-03 -3.529656429229949266e-01 -6.840000152587890625e-01
8.516978365499651080e-03 -3.529656429229949266e-01 -6.840000152587890625e-01
1.028631374709583664e-02 -3.529656429229949266e-01 -6.840000152587890625e-01
2.081064852898378489e-02 -3.514175372056547730e-01 -6.809999942779541016e-01
2.253907833722854429e-02 -3.509015122191687097e-01 -6.800000071525573730e-01
2.429806670755112544e-02 -3.509015122191687097e-01 -6.800000071525573730e-01
2.605705507787370659e-02 -3.509015122191687097e-01 -6.800000071525573730e-01
2.777513802902703208e-02 -3.503854872326827019e-01 -6.790000200271606445e-01
2.953153968507675822e-02 -3.503854872326827019e-01 -6.790000200271606445e-01
3.128794134112648090e-02 -3.503854872326827019e-01 -6.790000200271606445e-01
3.299567453445749476e-02 -3.498694314883146195e-01 -6.779999732971191406e-01
3.469823704579150236e-02 -3.493534065018285562e-01 -6.769999861717224121e-01
3.639562612857979301e-02 -3.488373815153425483e-01 -6.759999990463256836e-01
3.814426748762876629e-02 -3.488373815153425483e-01 -6.759999990463256836e-01
3.989290884667774650e-02 -3.488373815153425483e-01 -6.759999990463256836e-01
4.164155020572672672e-02 -3.488373815153425483e-01 -6.759999990463256836e-01
4.332600571715072846e-02 -3.483213565288564850e-01 -6.750000119209289551e-01
4.507206036192684673e-02 -3.483213565288564850e-01 -6.750000119209289551e-01
4.681811500670296500e-02 -3.483213565288564850e-01 -6.750000119209289551e-01
4.849222366103553283e-02 -3.478053315423704217e-01 -6.740000247955322266e-01
5.016115444426980097e-02 -3.472892757980023393e-01 -6.729999780654907227e-01
5.190203550631803525e-02 -3.472892757980023393e-01 -6.729999780654907227e-01
5.356321043510414021e-02 -3.467732508115163315e-01 -6.719999909400939941e-01
5.521921193534452821e-02 -3.462572258250302681e-01 -6.710000038146972656e-01
5.695491956884704554e-02 -3.462572258250302681e-01 -6.710000038146972656e-01
5.860316092626886159e-02 -3.457412008385442048e-01 -6.700000166893005371e-01
6.696755999570788709e-02 -3.441930951212040513e-01 -6.669999957084655762e-01
6.858993405621895134e-02 -3.436770701347179879e-01 -6.660000085830688477e-01
7.031270796417501967e-02 -3.436770701347179879e-01 -6.660000085830688477e-01
7.192732188186749809e-02 -3.431610451482319801e-01 -6.650000214576721191e-01
7.375825578008712857e-02 -3.436770701347179879e-01 -6.660000085830688477e-01
7.548102968804318302e-02 -3.436770701347179879e-01 -6.660000085830688477e-01
7.743564386216351958e-02 -3.447091201076901146e-01 -6.679999828338623047e-01
7.916359119866529792e-02 -3.447091201076901146e-01 -6.679999828338623047e-01
8.089153853516706238e-02 -3.447091201076901146e-01 -6.679999828338623047e-01
8.261948587166884073e-02 -3.447091201076901146e-01 -6.679999828338623047e-01
8.459997471471375485e-02 -3.457412008385442048e-01 -6.700000166893005371e-01
8.646194933838985408e-02 -3.462572258250302681e-01 -6.710000038146972656e-01
8.832909739061164944e-02 -3.467732508115163315e-01 -6.719999909400939941e-01
9.020141887137918257e-02 -3.472892757980023393e-01 -6.729999780654907227e-01
9.368318099547565114e-02 -3.472892757980023393e-01 -6.729999780654907227e-01
9.542406205752387849e-02 -3.472892757980023393e-01 -6.729999780654907227e-01
9.730932571512687645e-02 -3.478053315423704217e-01 -6.740000247955322266e-01
9.905279364563014666e-02 -3.478053315423704217e-01 -6.740000247955322266e-01
1.044379182843149512e-01 -3.483213565288564850e-01 -6.750000119209289551e-01
1.061839729290910694e-01 -3.483213565288564850e-01 -6.750000119209289551e-01
1.130005370896562389e-01 -3.478053315423704217e-01 -6.740000247955322266e-01
1.147440050201595091e-01 -3.478053315423704217e-01 -6.740000247955322266e-01
1.768604539404662057e-01 -3.607061099939317117e-01 -6.990000009536743164e-01
1.812513107006920310e-01 -3.622542157112718653e-01 -7.020000219345092773e-01
1.833279836882905356e-01 -3.627702406977579286e-01 -7.030000090599060059e-01
1.859365557977048777e-01 -3.643183156572160630e-01 -7.059999704360961914e-01
1.880287649229737401e-01 -3.648343714015840900e-01 -7.070000171661376953e-01
1.906632043292988132e-01 -3.663824463610422799e-01 -7.099999785423278809e-01
1.930420571922049633e-01 -3.674145270918963702e-01 -7.120000123977661133e-01
1.959786766280198489e-01 -3.694786577957225870e-01 -7.160000205039978027e-01
1.989359900863819641e-01 -3.715427884995487484e-01 -7.200000286102294922e-01
2.019139809443472044e-01 -3.736068884454929462e-01 -7.239999771118164062e-01
2.043497426005314310e-01 -3.746389691763470919e-01 -7.260000109672546387e-01
2.067958344908630286e-01 -3.756710191493191631e-01 -7.279999852180480957e-01
2.098255768739581695e-01 -3.777351498531453800e-01 -7.319999933242797852e-01
2.122975533008732707e-01 -3.787672305839994702e-01 -7.340000271797180176e-01
2.147798594993892141e-01 -3.797992805569715968e-01 -7.360000014305114746e-01
2.169781091370872605e-01 -3.803153055434576602e-01 -7.369999885559082031e-01
2.191815322033310032e-01 -3.808313305299436680e-01 -7.379999756813049316e-01
2.213901465545218827e-01 -3.813473862743117504e-01 -7.390000224113464355e-01
2.274323030941638180e-01 -3.818634112607978137e-01 -7.400000095367431641e-01
2.290365726216795905e-01 -3.813473862743117504e-01 -7.390000224113464355e-01
2.300106292576986622e-01 -3.797992805569715968e-01 -7.360000014305114746e-01
2.309691652997162559e-01 -3.782511748396314433e-01 -7.329999804496765137e-01
2.322298835297740560e-01 -3.772191248666593166e-01 -7.310000061988830566e-01
2.331599652522436950e-01 -3.756710191493191631e-01 -7.279999852180480957e-01
2.340745456247528000e-01 -3.741229441898610286e-01 -7.250000238418579102e-01
2.349735863134016223e-01 -3.725748384725208751e-01 -7.220000028610229492e-01
2.370557430330116622e-01 -3.699946827822085949e-01 -7.170000076293945312e-01
2.410648517656741596e-01 -3.648343714015840900e-01 -7.070000171661376953e-01
2.491472900368057741e-01 -3.632862656842439364e-01 -7.039999961853027344e-01
2.513248448810457836e-01 -3.638022906707299997e-01 -7.049999833106994629e-01
2.531485018791006514e-01 -3.638022906707299997e-01 -7.049999833106994629e-01
2.549721588771555192e-01 -3.638022906707299997e-01 -7.049999833106994629e-01
2.567958158752104425e-01 -3.638022906707299997e-01 -7.049999833106994629e-01
2.593531575735019135e-01 -3.648343714015840900e-01 -7.070000171661376953e-01
2.615514062861069022e-01 -3.653503963880701533e-01 -7.080000042915344238e-01
2.641268332733527346e-01 -3.663824463610422799e-01 -7.099999785423278809e-01
2.663380378850063734e-01 -3.668985021054103068e-01 -7.110000252723693848e-01
2.689315720263443787e-01 -3.679305520783824335e-01 -7.129999995231628418e-01
2.715354530247738318e-01 -3.689626020513545046e-01 -7.149999737739562988e-01
2.797967484915334091e-01 -3.725748384725208751e-01 -7.220000028610229492e-01
2.824446039409657661e-01 -3.736068884454929462e-01 -7.239999771118164062e-01
2.847101310941711483e-01 -3.741229441898610286e-01 -7.250000238418579102e-01
2.865855231485940346e-01 -3.741229441898610286e-01 -7.250000238418579102e-01
2.888587871918406047e-01 -3.746389691763470919e-01 -7.260000109672546387e-01
2.930177901466015644e-01 -3.751549941628330997e-01 -7.269999980926513672e-01
2.953039877612124164e-01 -3.756710191493191631e-01 -7.279999852180480957e-01
2.967789211125387849e-01 -3.751549941628330997e-01 -7.269999980926513672e-01
2.990702921556953608e-01 -3.756710191493191631e-01 -7.279999852180480957e-01
3.036685793222447804e-01 -3.767030998801733088e-01 -7.300000190734863281e-01
3.055569051022141158e-01 -3.767030998801733088e-01 -7.300000190734863281e-01
3.078663832994629201e-01 -3.772191248666593166e-01 -7.310000061988830566e-01
3.093335566621528421e-01 -3.767030998801733088e-01 -7.300000190734863281e-01
3.612559521811684049e-01 -3.643183156572160630e-01 -7.059999704360961914e-01
3.635965006781199937e-01 -3.648343714015840900e-01 -7.070000171661376953e-01
3.659421921042779191e-01 -3.653503963880701533e-01 -7.080000042915344238e-01
3.682930569589815684e-01 -3.658664213745562166e-01 -7.089999914169311523e-01
3.696050266943892160e-01 -3.653503963880701533e-01 -7.080000042915344238e-01
3.709118230012510842e-01 -3.648343714015840900e-01 -7.070000171661376953e-01
3.732678612845004573e-01 -3.653503963880701533e-01 -7.080000042915344238e-01
3.745694841628166571e-01 -3.648343714015840900e-01 -7.070000171661376953e-01
3.763983147435994159e-01 -3.648343714015840900e-01 -7.070000171661376953e-01
3.776921455921181114e-01 -3.643183156572160630e-01 -7.059999704360961914e-01
3.784432801853298556e-01 -3.632862656842439364e-01 -7.039999961853027344e-01
3.797242091952809928e-01 -3.627702406977579286e-01 -7.030000090599060059e-01
3.809999647766864062e-01 -3.622542157112718653e-01 -7.020000219345092773e-01
3.828158616319227159e-01 -3.622542157112718653e-01 -7.020000219345092773e-01
3.846317584871590256e-01 -3.622542157112718653e-01 -7.020000219345092773e-01
3.858971343994010983e-01 -3.617381599669037828e-01 -7.009999752044677734e-01
3.866042946957920501e-01 -3.607061099939317117e-01 -6.990000009536743164e-01
3.878567696945596222e-01 -3.601900850074456484e-01 -6.980000138282775879e-01
3.896623195385223171e-01 -3.601900850074456484e-01 -6.980000138282775879e-01
3.909070343944712755e-01 -3.596740600209595851e-01 -6.970000267028808594e-01
3.928149016670076654e-01 -3.581259543036194315e-01 -6.940000057220458984e-01
3.930365247312497257e-01 -3.534816679094809899e-01 -6.850000023841857910e-01
3.925029913786216018e-01 -3.514175372056547730e-01 -6.809999942779541016e-01
3.919464928348329602e-01 -3.462572258250302681e-01 -6.710000038146972656e-01
3.901619527132592080e-01 -3.431610451482319801e-01 -6.650000214576721191e-01
3.950630023365124810e-01 -3.385167587540934830e-01 -6.560000181198120117e-01
3.996716069400891302e-01 -3.395488087270656097e-01 -6.579999923706054688e-01
4.061386495907053362e-01 -3.421289644173778344e-01 -6.629999876022338867e-01
4.103143238192619169e-01 -3.441930951212040513e-01 -6.669999957084655762e-01
4.114219417394742173e-01 -3.436770701347179879e-01 -6.660000085830688477e-01
4.129987040345265981e-01 -3.421289644173778344e-01 -6.629999876022338867e-01
4.203020726854498901e-01 -3.410969144444057632e-01 -6.610000133514404297e-01
4.220119128678594955e-01 -3.410969144444057632e-01 -6.610000133514404297e-01
4.280060709742895542e-01 -3.431610451482319801e-01 -6.650000214576721191e-01
4.303724547269908163e-01 -3.436770701347179879e-01 -6.660000085830688477e-01
4.357721513307708516e-01 -3.452251758520581970e-01 -6.690000295639038086e-01
4.388105989394009421e-01 -3.462572258250302681e-01 -6.710000038146972656e-01
4.405463065729034455e-01 -3.462572258250302681e-01 -6.710000038146972656e-01
4.422820142064059490e-01 -3.462572258250302681e-01 -6.710000038146972656e-01
4.453411555292188795e-01 -3.472892757980023393e-01 -6.729999780654907227e-01
4.470820365912671068e-01 -3.472892757980023393e-01 -6.729999780654907227e-01
4.488229176533153897e-01 -3.472892757980023393e-01 -6.729999780654907227e-01
